ply
format ascii 1.0
element vertex 730
property float x
property float y
property float z
property float nx
property float ny
property float nz
property uchar red
property uchar green
property uchar blue
end_header
-0.09 -0.45 0.0891101 -0.03508035 -0.040423755 -0.9985666 37 62 133
-0.09 -0.44 0.08822398 0.088950194 -0.25080225 -0.963943 41 65 133
-0.09 -0.43 0.086201474 0.033560865 -0.09967985 -0.99445343 38 63 132
-0.09 -0.42 0.08497346 0.07321041 -0.36562005 -0.9278805 40 66 133
-0.09 -0.41 0.07548553 0.30069235 -0.47849512 -0.82500094 49 70 131
-0.09 -0.41480362 0.08 0.15393244 -0.6749636 -0.72161555 49 70 131
-0.09 -0.4 0.073336855 0.47093278 -0.15356097 -0.868701 52 73 133
-0.09 -0.39 0.07189037 0.3306296 -0.12685855 -0.9351957 47 68 129
-0.09 -0.38 0.07044376 0.32701918 -0.100469805 -0.9396618 47 68 130
-0.09 -0.37 0.06974375 0.021142868 0.05022502 -0.9985141 46 68 130
-0.09 -0.37457284 0.07 0.028960356 -0.043916926 -0.9986153 46 68 130
-0.09 -0.36 0.06979373 0.14298557 0.26872557 -0.95254487 47 68 130
-0.09 -0.35450184 0.07 0.16629371 -0.41295767 -0.89543974 34 59 127
-0.09 -0.35 0.070582844 0.363295 -0.1049978 -0.92573875 34 59 127
-0.09018806 -0.34 0.07 -0.3882899 0.5622558 -0.7301365 40 64 129
-0.09 -0.34 0.069851495 -0.12593825 0.5899101 -0.7975874 40 64 129
-0.09 -0.34456033 0.07 0.4257049 0.31432796 -0.8485124 40 64 129
-0.09 -0.33980832 0.07 -0.43513516 0.71913993 -0.5417519 40 64 129
-0.09 -0.33 0.07740822 -8.6935324e-05 0.2947755 -0.9555665 39 64 133
-0.09 -0.32 0.07704121 0.16323733 -0.023841716 -0.9862987 39 64 133
-0.09 -0.31 0.076879114 0.17937304 0.18843512 -0.9655659 38 62 132
-0.09 -0.3059669 0.08 0.16554765 0.57601964 -0.80049694 38 62 132
-0.09 -0.3 0.08438526 0.0018643403 0.28689206 -0.9579611 45 63 120
-0.09 -0.2923862 0.09 -0.0054256786 0.2307687 -0.9729935 35 54 112
-0.09 -0.29 0.09169579 0.0019162217 0.04968128 -0.99876326 35 54 112
-0.09 -0.28 0.09170701 0.09070286 0.05264088 -0.99448574 33 52 109
-0.09 -0.27 0.094151594 0.13127339 0.45485598 -0.8808367 39 55 107
-0.09 -0.26 0.09448841 -0.15782864 -0.0011252193 -0.98746586 38 54 106
-0.09 -0.25 0.09327398 0.010656304 -0.027408913 -0.9995675 38 54 104
-0.09 -0.24 0.09337173 -0.03519061 -0.08960284 -0.99535567 41 55 104
-0.09 -0.23 0.09189469 -0.09310161 -0.07560904 -0.99278164 43 58 107
-0.09 -0.22 0.090966165 -0.09434239 -0.129679 -0.9870577 43 58 107
-0.095751874 -0.21 0.09 -0.070085414 -0.2279678 -0.971143 40 55 105
-0.09 -0.21 0.089406036 -0.08394336 -0.1604371 -0.9834701 43 58 107
-0.09 -0.21420327 0.09 -0.09271131 -0.14919864 -0.9844513 43 58 107
-0.09 -0.2 0.08627899 -0.1268133 -0.18458906 -0.9746001 44 56 102
-0.09 -0.19 0.08678314 -0.14521319 -0.03506129 -0.98877895 42 55 101
-0.09 -0.18 0.085761696 -0.15037285 -0.10132716 -0.983423 42 55 100
-0.09 -0.17 0.08458935 -0.11744269 -0.06869954 -0.99070054 41 54 97
-0.09 -0.16 0.084308036 -0.14764115 0.38465637 -0.9111759 43 55 98
-0.09158661 -0.15 0.09 -0.5165859 0.79800904 -0.31035566 41 53 96
-0.09 -0.15 0.08797127 -0.22982872 0.5242892 -0.8199388 41 53 96
-0.09 -0.15 0.094193086 -0.44530708 0.70219094 0.5555443 41 53 96
-0.09 -0.15355408 0.1 -0.20855749 0.95278645 0.22068465 47 53 83
-0.09 -0.15297703 0.11 -0.23290147 0.9519838 -0.19870505 43 49 77
-0.09 -0.15 0.11577579 -0.21575263 0.5633198 -0.7975723 53 55 82
-0.09 -0.14826058 0.09 -0.24657053 0.94463813 -0.2164757 41 53 96
-0.09 -0.14168297 0.12 -0.12906356 0.14270273 -0.9813147 49 54 84
-0.09 -0.14 0.120954104 -0.08713803 0.07079916 -0.99367726 49 54 84
-0.09 -0.13 0.121638805 0.03384902 0.04439495 -0.99844044 50 56 86
-0.09 -0.12 0.12378509 0.29530138 0.63906455 -0.7102067 51 56 83
-0.09 -0.113595694 0.13 0.20027506 0.5982327 -0.7758915 48 49 69
-0.09 -0.11 0.13314041 -0.028365567 0.278837 -0.95991945 48 49 69
-0.09964798 -0.1 0.14 -0.35822934 0.33232442 -0.87248623 42 43 63
-0.09 -0.1 0.13551228 -0.31176913 0.14999446 -0.9382439 48 45 63
-0.09 -0.100603946 0.19 0.9592044 0.18204226 0.2163043 59 44 35
-0.09 -0.1 0.18906274 0.59238064 0.32420155 0.737549 59 44 35
-0.09011421 -0.1 0.2 0.99079686 0.11654671 -0.068836644 66 48 34
-0.09 -0.10099449 0.2 0.7773517 0.6287456 -0.020083362 66 48 34
-0.09 -0.1 0.20132619 0.99446887 0.05706088 -0.088180244 66 48 34
-0.090728305 -0.1 0.22 0.9912336 0.02273289 -0.1301507 55 44 39
-0.09 -0.10222962 0.22 0.961289 0.18550545 -0.20374288 55 44 39
-0.09 -0.1 0.21349469 0.96166813 0.21333657 0.17228429 67 48 34
-0.09 -0.1 0.22220705 0.8872286 0.1470045 -0.43728143 55 44 39
-0.0973819 -0.09 0.14 -0.41600817 0.047474425 -0.9081208 44 45 62
-0.09 -0.09 0.13578974 -0.40587112 -0.028732914 -0.91347855 41 37 56
-0.09627434 -0.09 0.17 0.13948765 0.6884617 0.71173286 48 44 47
-0.09 -0.09170563 0.17 0.4718335 0.6314891 0.6153004 53 47 52
-0.09 -0.09 0.16861673 0.3928331 0.5626996 0.7273591 53 47 52
-0.09 -0.09548081 0.18 0.679392 0.71206886 0.1771566 46 41 50
-0.09069435 -0.09 0.2 0.95597106 0.26476187 -0.12657222 66 50 40
-0.09 -0.090035856 0.21 0.9991774 0.033804845 0.022399113 76 56 37
-0.09000267 -0.09 0.21 0.94686556 0.31704235 0.054127462 76 56 37
-0.09085693 -0.09 0.22 0.88098663 0.4502455 0.14540145 66 50 39
-0.09 -0.09460922 0.23 0.7867995 0.6136269 0.066397175 71 57 47
-0.094793856 -0.09 0.23 0.90876836 0.22810405 0.3494405 71 57 47
-0.097225875 -0.09 0.24 0.9236697 0.37616906 -0.07301475 51 42 38
-0.09 -0.0969754 0.24 0.4920582 0.8705305 0.0074458406 65 55 51
-0.09395134 -0.09 0.25 0.733861 0.6720288 0.0991227 80 61 43
-0.09 -0.09370239 0.25 0.49650195 0.86013436 -0.11685321 80 61 43
-0.09702431 -0.09 0.26 0.9284377 0.37148625 0.0011769724 64 48 34
-0.09 -0.09604599 0.26 0.4829044 0.8715739 0.08463018 72 60 52
-0.09624138 -0.09 0.27 0.90981877 0.41067606 -0.059790965 71 53 37
-0.09 -0.09614075 0.27 0.4394481 0.8981691 -0.013327759 71 56 47
-0.09564171 -0.09 0.28 0.90907097 0.4137464 -0.04902934 76 59 48
-0.09 -0.09552002 0.28 0.45704353 0.88788706 -0.05261016 73 57 47
-0.09513268 -0.09 0.29 0.90345174 0.3570473 -0.2372597 83 65 52
-0.09 -0.09495491 0.29 0.42165396 0.8816508 -0.21189569 100 67 33
-0.09 -0.09 0.29830626 0.40387058 0.71963626 -0.5648116 90 63 31
-0.097108 -0.08 0.14 -0.46384853 0.4514549 -0.7622552 43 43 61
-0.09 -0.08 0.13459454 0.82295185 0.22644989 -0.5210285 48 45 60
-0.09447052 -0.08 0.16 0.71972847 0.581832 0.37876442 49 44 49
-0.09 -0.084147796 0.16 0.6091194 0.6491668 0.4555831 49 44 49
-0.09 -0.08 0.15444002 0.48089698 0.6402453 0.5990192 46 41 51
-0.09296311 -0.08 0.2 0.7143999 0.67792475 0.1733518 64 48 34
-0.095775835 -0.08 0.21 0.94101095 0.31395885 0.12620716 61 51 51
-0.09596634 -0.08 0.22 0.9334127 0.35398278 -0.05862614 62 54 54
-0.09485695 -0.08 0.23 0.8810626 0.40716398 0.24072014 67 48 30
-0.09 -0.08834862 0.3 0.5328352 0.6049075 -0.5917547 90 63 31
-0.09 -0.08 0.3084592 0.387912 0.6652077 -0.63798356 68 48 29
-0.09 -0.07848725 0.14 0.3355534 0.92684984 -0.16838439 43 40 55
-0.09 -0.07634575 0.15 0.3575252 0.9308138 0.07590406 46 41 51
-0.09714684 -0.07 0.15 0.84519935 0.49564543 0.19993415 38 38 55
-0.09993904 -0.07 0.21 0.7501016 0.65168583 0.11248607 70 58 51
-0.09 -0.078737564 0.31 0.542232 0.7439775 -0.39048946 68 48 29
-0.09790573 -0.07 0.32 0.69203985 0.48667416 -0.5331314 84 61 42
-0.09 -0.0773452 0.32 0.5291294 0.7976316 -0.28949246 81 58 36
-0.09 -0.07 0.32699737 0.4415381 0.5405418 -0.7161415 78 49 30
-0.098509066 -0.06 0.15 0.60713726 0.68740577 0.3985695 47 39 46
-0.094029926 -0.06 0.33 0.8982341 0.18771698 -0.39741382 105 66 22
-0.09 -0.066556245 0.33 0.6698694 0.58869445 -0.45245305 78 49 30
-0.091382675 -0.06 0.34 0.96350235 0.15019633 -0.22159477 103 63 24
-0.09 -0.064823076 0.34 0.7485902 0.578342 -0.32424256 103 63 24
-0.09 -0.06 0.34509972 0.7765908 0.40207252 -0.48502004 67 44 29
-0.09752434 -0.05 0.33 0.7804156 0.17119095 -0.6013694 97 67 27
-0.093009494 -0.05 0.34 0.94462806 0.16077206 -0.2860598 99 65 25
-0.09 -0.054806672 0.35 0.8013203 0.22593834 -0.5539292 95 63 27
-0.09119232 -0.05 0.35 0.9292898 0.034952402 -0.36769384 95 63 27
-0.09 -0.05 0.35221946 0.633123 0.10624819 -0.7667246 95 63 27
-0.09941711 -0.04 0.32 0.8569079 0.0030922804 -0.51546025 90 61 29
-0.097591706 -0.04 0.33 0.98245656 0.029086623 -0.18420929 97 65 26
-0.095654905 -0.04 0.34 0.86587906 0.06496032 -0.49601772 86 58 27
-0.0912973 -0.04 0.35 0.9804706 0.17106618 -0.097024746 102 68 25
-0.09 -0.041768648 0.36 0.8394272 0.15021403 -0.5223004 84 56 26
-0.09116241 -0.04 0.36 0.92792577 0.01736123 -0.37236053 84 56 26
-0.09 -0.04 0.361671 0.61263645 0.12725317 -0.7800534 84 56 26
-0.09952088 -0.03 0.32 0.7311878 -0.5146611 -0.44775927 98 68 30
-0.09753639 -0.03 0.33 0.9442656 -0.28573215 -0.16346133 95 63 26
-0.095897906 -0.03 0.34 0.9171043 -0.120109595 -0.38012287 94 64 29
-0.092031024 -0.03 0.35 0.98375815 0.11100742 -0.14105749 79 54 25
-0.09147705 -0.03 0.36 0.98420584 0.16933739 -0.051611025 69 47 25
-0.09 -0.031678542 0.37 0.8141812 0.5702639 -0.10912391 56 38 20
-0.09109139 -0.03 0.37 0.97213006 0.23372735 -0.018294325 56 38 20
-0.09098206 -0.03 0.38 0.95093155 0.30874735 -0.0201049 52 37 23
-0.09 -0.031473234 0.38 0.6111167 0.7912544 -0.021278977 52 37 23
-0.09072731 -0.03 0.39 0.9343066 0.29103062 -0.20584537 43 32 23
-0.09 -0.031088792 0.39 0.4637166 0.86332107 -0.19910726 43 32 23
-0.09 -0.03 0.3922674 0.53714 0.7565293 -0.37302014 43 32 23
-0.09966354 -0.02 0.31 0.8812951 -0.18586454 -0.43448058 84 57 27
-0.09521599 -0.02 0.32 0.98167706 0.10982218 -0.15572174 81 56 28
-0.09436661 -0.02 0.33 0.99201244 -0.08201509 -0.09583777 98 63 24
-0.09329231 -0.02 0.34 0.9997411 0.02271556 -0.0013325593 93 61 22
-0.095313415 -0.02 0.35 0.9885703 -0.09298281 -0.11867193 65 45 26
-0.09178917 -0.02 0.36 0.9924573 0.112323575 -0.049111795 53 39 24
-0.09326096 -0.02 0.37 0.9982729 -0.055246063 -0.019976595 44 32 24
-0.091650695 -0.02 0.38 0.99257225 0.058307607 -0.10677317 47 35 23
-0.09091278 -0.02 0.39 0.9943664 0.10176479 -0.029654335 41 30 22
-0.09 -0.02291626 0.4 0.5676613 0.113643564 -0.81538075 53 47 43
-0.09097206 -0.02 0.4 0.8518413 -0.21201855 -0.47897243 53 47 43
-0.09 -0.02 0.40053046 0.16889527 -0.07401435 -0.9828511 53 47 43
-0.09902146 -0.01 0.24 0.98287225 -0.15765163 -0.095436536 62 44 32
-0.0981617 -0.01 0.25 0.9694834 -0.2336797 -0.074133545 71 52 36
-0.09751656 -0.01 0.26 0.9485847 -0.23481584 0.21224663 61 44 36
-0.094444126 -0.01 0.33 0.96522224 0.07194176 -0.25133735 122 79 26
-0.09369606 -0.01 0.34 0.98818725 -0.15159631 -0.022461044 102 68 26
-0.095243 -0.01 0.35 0.9288266 -0.36170655 -0.0803093 70 47 24
-0.09190613 -0.01 0.36 0.99162894 -0.07230583 -0.106976405 60 45 29
-0.091732174 -0.01 0.37 0.9998349 -0.007670567 -0.016470915 43 34 26
-0.09157005 -0.01 0.38 0.96814394 -0.24940348 -0.02225414 49 38 27
-0.09120117 -0.01 0.39 0.93795294 -0.2724058 -0.21456793 43 32 22
-0.09 -0.01 0.39246604 0.80180097 -0.3894548 -0.45325506 43 32 22
-0.09 -0.017411498 0.4 0.3514975 -0.20227364 -0.914076 53 47 43
-0.099216536 0.0 0.23 0.67873645 -0.039835278 -0.73330075 67 49 41
-0.09788628 0.0 0.24 0.9315233 0.33438033 -0.14301775 70 53 39
-0.09619606 0.0 0.25 0.98857284 0.092501245 -0.11902628 70 52 36
-0.09544189 0.0 0.26 0.999281 -0.03176176 0.0207051 68 48 35
-0.09632156 0.0 0.27 0.9522084 -0.068862006 0.2975856 81 63 47
-0.09 0.0 0.32913363 0.5409376 -0.8072997 -0.23591056 95 63 27
-0.09 -0.00014640809 0.33 0.6799941 -0.72154367 -0.13031796 95 63 27
-0.09 -0.0019992066 0.34 0.7242981 -0.6763978 -0.13370954 90 61 26
-0.09 -0.004044113 0.35 0.9062128 -0.40490994 0.12176327 67 47 25
-0.09 0.0 0.35466316 0.82260495 -0.0935483 0.5608652 67 47 25
-0.091292724 0.0 0.36 0.97817266 -0.12127818 0.16873027 84 59 26
-0.09148895 0.0 0.37 0.93397206 -0.32658997 -0.14503522 87 62 28
-0.09 0.0 0.37289715 0.6805427 -0.44749722 -0.58017915 87 62 28
-0.09 -0.0068515013 0.38 0.7567272 -0.6459182 -0.100765 49 38 27
-0.09 -0.0073711397 0.39 0.6657031 -0.6179554 -0.4182947 43 32 22
-0.09609024 0.01 0.23 0.484484 0.87436694 -0.027527055 76 60 54
-0.09 0.01 0.3278918 0.35158116 -0.08490194 -0.9322995 88 69 52
-0.09488678 0.01 0.35 -0.90183896 0.35168347 0.25100836 53 37 23
-0.09 0.01 0.35456395 0.16433069 -0.3489205 0.92263204 53 37 23
-0.09366867 0.01 0.36 0.7133488 -0.2555169 -0.65256774 60 42 25
-0.09 0.01 0.36349407 0.5356477 -0.42578456 -0.7292387 60 42 25
-0.09 0.002901764 0.37 0.6654499 -0.5771219 -0.47339907 87 62 28
-0.096860126 0.02 0.24 0.8873372 0.4017387 -0.22635972 68 55 49
-0.09682999 0.02 0.25 0.97153586 -0.23625241 -0.01740371 64 51 46
-0.09644188 0.02 0.26 0.94486743 -0.31611454 -0.08542342 71 56 49
-0.0932267 0.02 0.27 0.96238434 -0.2663239 -0.053739343 75 54 40
-0.09591034 0.02 0.28 0.93836373 -0.3137636 0.14500323 85 66 54
-0.09947953 0.02 0.29 0.77885264 -0.45232928 0.434496 77 56 41
-0.09430038 0.02 0.32 0.78870964 -0.08627569 -0.60868186 83 57 30
-0.09 0.02 0.32549354 0.485102 0.6984659 -0.52613825 79 65 53
-0.0928199 0.02 0.34 -0.91526335 0.39737326 -0.06623824 67 51 36
-0.095012896 0.02 0.35 -0.89567024 0.41431224 -0.16161749 69 47 23
-0.09 0.013951034 0.36 0.5410906 -0.75484085 -0.3707239 60 42 25
-0.09667312 0.02 0.36 -0.64339983 0.23135322 -0.7297345 53 35 20
-0.09204582 0.03 0.25 0.4802069 0.13546278 -0.8666321 85 61 36
-0.09 0.03 0.25187424 0.42622328 -0.5780548 -0.69583505 85 61 36
-0.09 0.02657753 0.26 0.37430897 -0.8874136 -0.26905367 82 63 48
-0.09 0.023379898 0.27 0.51731795 -0.8286164 0.21395555 75 54 40
-0.09 0.03 0.27850747 0.4238304 -0.6640452 0.61596406 73 54 38
-0.09124672 0.03 0.28 -0.00056508137 -0.9871846 0.1595816 73 54 38
-0.09789345 0.022379303 0.2881124 0.0 -0.01925671 0.99981457 77 56 41
-0.09721893 0.03 0.29 0.044654753 -0.6636708 0.74669075 89 60 28
-0.09 0.023756027 0.29 0.3400653 -0.88869673 -0.30752838 86 60 27
-0.09 0.03 0.2814336 0.113689825 -0.7623196 -0.6371369 73 54 38
-0.09 0.03 0.29670322 0.08087208 -0.60952497 0.7886311 71 52 29
-0.09410156 0.03 0.32 0.69457436 0.42335007 0.581671 83 56 25
-0.09 0.020712052 0.33 0.1480695 0.9818156 -0.11880062 79 65 53
-0.09 0.022478562 0.34 -0.24012624 0.9485549 -0.20635663 67 51 36
-0.09 0.024525452 0.35 -0.26604947 0.95163095 -0.15367573 58 40 23
-0.09 0.025921479 0.36 0.16586258 0.97337246 -0.15822662 69 44 20
-0.09 0.027902603 0.37 0.33712754 0.82707584 -0.4497673 63 46 32
-0.09110092 0.03 0.37 0.84146655 0.25604773 -0.4757874 63 46 32
-0.09 0.03 0.37191877 0.31957942 0.15425898 -0.9349188 63 46 32
-0.096989974 0.04 0.25 0.6877387 0.40854046 -0.6000918 76 60 51
-0.09 0.04 0.25669798 0.20477425 0.2266216 -0.9522133 80 60 43
-0.09777283 0.04 0.28 -0.7087838 -0.7049984 0.024553707 83 59 42
-0.09 0.031308748 0.28 0.51586694 -0.81638426 -0.25961134 73 54 38
-0.09 0.032831877 0.3 0.09759514 -0.8365407 0.5391427 71 52 29
-0.09804481 0.04 0.3 -0.8564755 -0.006742151 0.51614374 74 50 28
-0.09 0.04 0.30892533 -0.051069345 -0.40934905 0.91094744 89 58 20
-0.09 0.04 0.31872743 0.35166478 0.87824225 -0.32407168 81 54 23
-0.09 0.038783874 0.32 0.28043577 -0.20821004 0.9370189 81 54 23
-0.09 0.04 0.3201762 0.15099774 0.5158121 0.84328973 81 54 23
-0.09 0.04 0.3726536 -0.11651649 -0.067804486 -0.99087155 62 43 27
-0.09 0.05 0.2569741 0.18720055 0.113843694 -0.9757026 70 54 45
-0.09676094 0.05 0.27 -0.9625743 -0.19523294 -0.18797565 71 51 34
-0.09 0.05 0.28839502 -0.051185437 -0.27700266 0.95950484 82 54 23
-0.09313484 0.05 0.29 0.45643446 -0.45897007 0.7622428 82 54 23
-0.09 0.047254488 0.29 -0.2631262 0.87880677 0.39807445 82 54 23
-0.09 0.047796402 0.3 -0.108422294 0.98234385 0.15246373 82 58 31
-0.09832298 0.05 0.31 0.47879094 0.6146114 0.62690675 89 58 23
-0.09 0.04013603 0.32 0.15685669 0.93593997 0.31529722 81 54 23
-0.09 0.05 0.3720616 0.08725922 -0.112541854 -0.98980814 66 40 17
-0.09 0.05826889 0.26 -0.09152257 0.16097654 -0.98270553 82 61 43
-0.09650376 0.06 0.27 -0.6216715 0.51151675 -0.59319067 67 49 32
-0.09 0.06 0.26140842 0.14386842 0.6393978 -0.7552962 82 61 43
-0.09 0.053170014 0.29 0.392732 -0.64285 0.6576515 82 54 23
-0.09169876 0.06 0.3 0.62473357 -0.469103 0.6242198 92 61 24
-0.09 0.06 0.2979042 0.23080553 -0.46112037 0.8567945 92 61 24
-0.09 0.06 0.37221205 0.3416053 0.0700677 -0.937228 59 38 20
-0.09 0.07 0.2676585 -0.020060008 0.33899188 -0.9405754 57 46 36
-0.09160706 0.07 0.3 0.6177254 0.0773806 0.7825776 83 56 28
-0.09 0.07 0.2979608 0.4143422 -0.43306994 0.80048174 83 56 28
-0.09 0.06878288 0.38 0.21652731 -0.117092125 -0.9692293 62 44 30
-0.09 0.07 0.38050777 0.12481353 -0.14408086 -0.98166305 62 44 30
-0.09 0.077065736 0.27 0.09168265 0.17328274 -0.9805954 84 57 23
-0.09 0.08 0.2722465 -0.20520222 0.17008479 -0.9638274 84 57 23
-0.09 0.07170913 0.3 0.43145064 -0.54163724 0.7214426 83 56 28
-0.09 0.08 0.30375922 0.2396823 -0.17402889 0.95512635 78 59 45
-0.09 0.08 0.38000453 0.2396046 0.020269789 -0.97065896 52 32 18
-0.09430473 0.09 0.27 0.40950006 0.013602602 -0.9122087 62 45 25
-0.09 0.09 0.27378258 0.41311517 0.076565854 -0.90745443 62 45 25
-0.09978539 0.09 0.31 0.18659706 -0.039924085 0.98162496 86 61 39
-0.09 0.09 0.3072395 0.40207538 -0.08040017 0.91206974 91 69 50
-0.09056732 0.09 0.38 0.4119922 -0.07461882 -0.9081269 48 29 17
-0.09 0.09 0.3802046 0.15614957 -0.13309734 -0.9787249 48 29 17
-0.09449631 0.1 0.27 0.53781503 0.24674544 -0.8061462 64 43 23
-0.09 0.1 0.27347285 0.40499288 0.023220047 -0.91402495 64 43 23
-0.091690674 0.1 0.3 0.8377932 -0.14050762 0.52759856 73 53 37
-0.09 0.09824654 0.3 0.85260665 0.1395991 0.5035613 73 53 37
-0.09 0.1 0.29782382 0.6559932 0.091210485 0.74923533 73 53 37
-0.09722672 0.1 0.31 0.27367932 -0.49943712 0.82198673 81 59 39
-0.09031242 0.1 0.38 0.6426993 -0.21251065 -0.73605496 51 34 21
-0.09 0.1 0.38028783 0.2265951 -0.0077834106 -0.97395796 51 34 21
-0.09 0.11 0.27433455 0.22278589 0.0093025975 -0.974823 60 44 31
-0.0914138 0.11 0.3 0.95759296 -0.20268387 0.20478036 66 50 37
-0.09 0.11 0.29816127 0.65119827 -0.09322102 0.7531604 66 50 37
-0.09 0.11 0.30744135 0.9778982 -0.06643256 -0.19824702 81 58 37
-0.09 0.10751419 0.31 0.8578865 -0.056999896 0.5106679 81 58 37
-0.0950911 0.11 0.32 0.9000245 -0.33858284 0.27444056 70 55 44
-0.09 0.11 0.31043404 0.6735631 -0.04420237 0.7378068 81 58 37
-0.09848892 0.11 0.33 0.87923086 -0.44559896 0.16850717 65 46 28
-0.09728981 0.11 0.34 0.94572663 -0.27907884 0.16648181 73 52 31
-0.09310753 0.11 0.37 0.50191885 -0.5216798 -0.68987507 61 42 24
-0.09 0.11 0.37174904 0.3113203 -0.5243094 -0.7925776 61 42 24
-0.09 0.10066887 0.38 0.50684744 -0.55633867 -0.6584777 51 34 21
-0.09 0.12 0.27394068 0.235734 0.07774694 -0.9687027 60 40 24
-0.09011093 0.12 0.3 0.75545913 -0.49453336 0.4297886 86 60 39
-0.09 0.12 0.2998377 0.587958 -0.48408908 0.64804566 86 60 39
-0.09 0.12 0.30117726 0.92214274 -0.37415457 -0.09829098 86 60 39
-0.09088867 0.12 0.32 0.86609054 -0.38412517 0.3198985 71 50 36
-0.09 0.12 0.31408232 0.7243931 -0.67260844 0.15117024 81 56 38
-0.09841896 0.12 0.33 0.67699784 -0.672573 0.29886377 65 48 32
-0.09719452 0.12 0.34 0.83679205 -0.43136978 -0.33719313 55 41 29
-0.093142316 0.12 0.35 0.96329594 -0.11835211 -0.2409434 83 53 20
-0.09156441 0.12 0.36 0.8960481 -0.35010707 -0.27298853 70 52 32
-0.09 0.12 0.3623578 0.7043787 -0.46250275 -0.53846246 70 52 32
-0.09 0.11310753 0.37 0.4233177 -0.576106 -0.6992167 61 42 24
-0.09 0.12760612 0.28 0.7767377 0.15205199 -0.61119455 77 61 43
-0.09 0.13 0.28186598 0.6215777 -0.053184055 -0.78154504 77 61 43
-0.09 0.12011375 0.3 0.63109 -0.7310961 0.2592758 86 60 39
-0.09 0.12095093 0.32 0.64773214 -0.6860388 0.33135146 71 50 36
-0.09 0.1284951 0.33 0.80081195 -0.41014704 0.43643966 58 42 28
-0.09 0.13 0.3321119 0.70406795 -0.59820884 0.3826676 58 42 28
-0.09288734 0.13 0.34 0.85444754 -0.48297092 0.19146393 65 53 40
-0.09242729 0.13 0.35 0.8455482 -0.4813213 -0.23103683 87 61 34
-0.09 0.13 0.35403687 0.549144 -0.5748788 -0.60659313 87 61 34
-0.09 0.123022005 0.36 0.6704908 -0.49412036 -0.55343217 70 52 32
-0.09910461 0.14 0.25 0.2504829 -0.14546542 -0.95713013 42 32 29
-0.09668053 0.14 0.26 0.5935559 -0.79280376 -0.1383963 45 35 29
-0.094801255 0.14 0.27 0.8262684 -0.5321613 -0.18462117 58 42 28
-0.09196861 0.14 0.28 0.56352633 -0.46268925 -0.6843659 70 55 40
-0.09 0.14 0.28065622 0.3204129 -0.40275556 -0.85739344 70 55 40
-0.09 0.13304451 0.34 0.48151845 -0.86457217 0.14371812 65 53 40
-0.09 0.13257484 0.35 0.46415246 -0.8365451 -0.29112673 87 61 34
-0.09015396 0.15 0.24 -0.444703 -0.20975079 -0.87077194 38 31 27
-0.09 0.15 0.23992369 -0.23142391 -0.059717346 -0.97101843 38 31 27
-0.09 0.14985237 0.24 -0.12936065 -0.48144758 -0.866876 38 31 27
-0.09 0.14820617 0.25 0.26832724 -0.9407277 -0.20744121 43 32 25
-0.09 0.14567848 0.26 0.1222758 -0.9729916 -0.19579573 42 32 25
-0.09 0.14402542 0.27 0.30580905 -0.93155444 -0.1966904 58 42 28
-0.09 0.14178246 0.28 0.21572874 -0.48994377 -0.8446397 70 55 40
-0.09742913 0.16 0.24 -0.014212053 -0.27517202 -0.96128994 50 38 29
-0.09 0.16 0.2388124 -0.19382098 -0.3060543 -0.9320752 40 31 26
-0.09504723 0.17 0.24 0.15674908 -0.5793289 -0.79987985 46 34 28
-0.09 0.17 0.23956257 -0.26111233 -0.49746737 -0.82725245 36 28 26
-0.09073311 0.18 0.22 -0.34647936 -0.5436773 -0.76443905 46 38 33
-0.09 0.18 0.21986067 0.33094868 -0.44146252 -0.8340167 46 38 33
-0.09 0.17993142 0.22 0.18013315 -0.8486005 -0.49742258 46 38 33
-0.09 0.17515586 0.23 -0.11251482 -0.90729624 -0.40515918 43 35 33
-0.09965355 0.18 0.23 -0.26112434 -0.8052766 -0.5323004 52 39 29
-0.09070542 0.19 0.2 -0.6112454 -0.588583 -0.52910215 42 41 48
-0.09 0.19 0.19968523 0.304242 -0.26851207 -0.9139683 42 41 48
-0.09 0.18980461 0.2 -0.21716833 -0.78535885 -0.57969767 42 41 48
-0.09 0.19 0.20161287 0.35215 -0.86396056 0.3599479 42 41 48
-0.09 0.18130982 0.22 0.3531575 0.03413938 -0.9349408 46 38 33
-0.09 0.19 0.22078621 -0.032092456 -0.07730463 -0.9964909 49 41 37
-0.09 0.2 0.18786617 0.19533558 -0.20063983 -0.9599936 37 32 40
-0.09 0.19739845 0.19 0.11901165 -0.59768826 -0.7928461 37 32 40
-0.09 0.19471633 0.21 0.08082473 -0.93730694 0.3390031 42 36 35
-0.09053536 0.2 0.22 0.65597147 -0.7282751 -0.19828472 51 43 37
-0.09 0.2 0.21843809 0.23830028 -0.9269156 0.28989735 51 43 37
-0.09 0.2 0.22043365 0.27896157 -0.39617822 -0.8747704 51 43 37
-0.09 0.21 0.17841211 0.2865807 -0.6579566 -0.696394 33 32 41
-0.09 0.20931984 0.18 0.2999689 -0.6800444 -0.66899794 33 32 41
-0.09 0.20024231 0.22 -0.014466873 -0.97955877 -0.20063736 51 43 37
-0.09537132 0.22 0.17 0.41311082 -0.37524801 -0.8297761 34 33 41
-0.09 0.22 0.17228371 0.014082712 -0.6561788 -0.7544741 36 34 41
-0.09529091 0.23 0.15 0.94849604 0.1763624 -0.26315698 35 33 42
-0.09 0.23 0.16703865 0.05455037 -0.5500843 -0.8333256 44 40 45
-0.09 0.22257675 0.17 0.18105495 -0.4586358 -0.8699841 36 34 41
-0.09907433 0.23 0.19 -0.6742391 -0.5934215 0.439605 40 38 46
-0.09456055 0.24 0.14 0.9670908 -0.19660097 -0.16150387 37 29 34
-0.093602754 0.24 0.16 0.5945099 -0.045046996 -0.8028255 37 34 40
-0.09 0.24 0.16431631 0.4248941 -0.20630172 -0.8814219 37 34 40
-0.09824204 0.25 0.13 0.9303495 -0.117585406 -0.34730878 43 38 45
-0.09 0.25 0.13702899 0.4501644 -0.14368796 -0.88130915 36 31 38
-0.09 0.24620132 0.14 0.892957 -0.43142003 -0.12847027 36 31 38
-0.09498627 0.25 0.15 0.7935995 -0.59902275 0.10663798 35 31 36
-0.09 0.25 0.14391416 0.49157366 -0.0789985 0.8672454 36 31 38
-0.09 0.25 0.15806364 0.5127537 -0.5362669 -0.67044866 36 30 36
-0.09 0.24741173 0.16 0.7691364 -0.026529957 -0.6385338 36 30 36
-0.09963142 0.26 0.11 0.99193984 0.12345952 0.028515685 50 42 41
-0.09910385 0.26 0.13 0.8310793 -0.04713717 -0.5541528 36 30 35
-0.09 0.2537571 0.14 0.7541158 0.3785692 -0.5366514 36 31 38
-0.09603371 0.26 0.14 0.44157985 -0.6667557 -0.60037 34 30 36
-0.09 0.26 0.14438048 0.2525223 -0.3262295 -0.9109373 46 35 38
-0.09 0.25421768 0.15 0.55532867 -0.7738375 -0.3046072 35 31 36
-0.09 0.27 0.12783931 0.22413673 -0.8606957 -0.45712757 40 33 38
-0.09 0.262276 0.13 0.7701349 -0.47649464 -0.4240814 40 35 41
-0.09 0.26533714 0.14 0.32578847 -0.77574587 -0.54044443 27 26 34
-0.09 0.28 0.12013099 0.69115317 -0.35357133 -0.6303131 35 30 36
-0.09553803 0.29 0.07 -0.31875208 0.8344149 0.44960967 26 25 31
-0.09 0.29 0.0663839 0.20351177 0.5451604 -0.81325465 23 23 34
-0.09 0.28549653 0.07 0.8256272 -0.46016043 0.32648438 23 23 34
-0.09 0.29 0.07181332 -0.035979938 0.37486005 0.92638296 23 23 34
-0.09 0.29 0.11681585 0.15773647 -0.19866902 -0.9672899 33 29 37
-0.09 0.28034356 0.12 -0.13533491 -0.29353243 -0.9463209 35 30 36
-0.09 0.29174888 0.07 -0.074889824 0.9113331 0.4048006 23 23 34
-0.09 0.3 0.11881842 0.12893066 0.0044732885 -0.99164355 38 35 41
-0.096349105 0.31 0.12 -0.22930472 -0.1289968 -0.96476895 37 35 39
-0.09 0.31 0.11704884 -0.0012352486 0.22673886 -0.9739548 32 31 38
-0.09375999 0.32 0.12 0.38943297 0.23063108 -0.89171255 28 26 32
-0.09 0.31537232 0.12 0.041836753 0.432078 -0.9008653 28 26 32
-0.09 0.32 0.12220107 0.055218294 0.0742271 -0.99571145 28 26 32
-0.09 0.33 0.12227906 -0.061298523 -0.6139891 -0.7869306 25 23 27
-0.09 0.34 0.120117165 -0.11325654 -0.6596217 -0.7430156 27 26 32
-0.09403465 0.35 0.09 -0.8748047 -0.32147187 -0.36245364 18 20 34
-0.09 0.35 0.08649856 -0.3977133 -0.23539005 -0.88680077 18 20 34
-0.09 0.34569785 0.09 -0.6260462 -0.6322936 -0.45636716 18 20 34
-0.09 0.35 0.09551951 -0.47513917 -0.4987087 0.7249361 23 23 33
-0.09956703 0.35 0.12 -0.41276923 -0.6597908 -0.62793124 30 29 35
-0.09 0.35 0.11101028 -0.25214073 -0.58222693 -0.7729404 22 22 32
-0.09 0.3401268 0.12 -0.048049822 -0.8443414 -0.53364676 27 26 32
-0.09 0.36 0.073419765 -0.0004686104 -0.92543566 -0.37890443 15 18 32
-0.09 0.35847795 0.08 -0.14586802 -0.85278326 -0.501481 15 19 34
-0.09 0.3535745 0.1 -0.25011975 -0.9519457 0.17674685 23 23 33
-0.09616913 0.36 0.1 -0.44548157 -0.80877787 -0.383959 23 23 33
-0.09 0.3513227 0.11 -0.39928463 -0.73399484 -0.5493845 22 22 32
-0.09 0.37 0.07399158 -0.039572105 0.062307324 -0.9972722 14 18 32
-0.09 0.38 0.07479147 -0.029250255 0.11007981 -0.99349225 16 19 33
-0.09 0.39 0.07618547 -0.00035201537 0.11553417 -0.9933034 14 17 32
-0.09 0.4 0.077112116 0.0017163397 0.162932 -0.9866358 14 17 32
-0.09 0.41 0.07961944 -0.0524509 0.092249714 -0.99435353 18 20 32
-0.09901741 0.42 0.08 -0.13401207 0.1719146 -0.97595394 14 18 33
-0.09 0.42 0.078898996 -0.0057026725 0.08337563 -0.99650186 18 19 32
-0.09 0.42526016 0.08 -0.07726988 0.11867202 -0.9899224 17 19 32
-0.09 0.43 0.08094277 -0.080648266 0.0572522 -0.995097 17 19 32
-0.09 0.44 0.081626005 -0.03671602 0.24306099 -0.9693159 17 19 34
-0.09 0.45 0.08396844 -0.10727783 0.10989108 -0.98813736 17 19 33
-0.09 0.46 0.08435845 -0.056735944 0.061472077 -0.99649495 18 20 34
-0.09 0.47 0.085442565 -0.03602293 0.080268405 -0.9961221 19 20 33
-0.09 0.48 0.08596796 -0.04439579 0.12548193 -0.99110204 19 20 33
-0.09 0.49 0.08795729 -0.03266533 0.122014984 -0.99199057 21 23 37
-0.09 0.5 0.08827592 -0.09800187 0.11836984 -0.98812157 19 20 33
-0.09 0.51 0.08988588 -0.07650483 0.07135853 -0.99451244 19 20 33
-0.09 0.5112856 0.09 -0.039460026 0.09663259 -0.9945376 19 20 33
-0.09 0.52 0.09088926 -0.0012867129 0.18338998 -0.9830394 19 21 34
-0.09 0.53 0.09264401 0.1018574 0.21096008 -0.9721733 19 22 34
-0.09 0.54 0.09431635 -0.02488573 0.054166194 -0.99822176 18 21 33
-0.09 0.55 0.09468235 0.0035452312 0.079261586 -0.99684757 18 20 34
-0.09 0.56 0.096179046 0.013038757 0.034274563 -0.9993274 22 24 35
-0.09 0.57 0.09549572 0.01720166 0.044629738 -0.9988555 21 23 35
-0.09 0.58 0.09706941 -0.009602785 0.005756486 -0.9999373 20 23 35
-0.09 0.59 0.09588306 0.05589283 0.0238514 -0.99815184 20 24 38
-0.09 0.6 0.09686182 0.020863611 0.052285876 -0.9984142 19 24 38
-0.09 0.61 0.09720667 -0.02728723 0.045989495 -0.9985692 21 25 40
-0.09 0.62 0.097639896 0.05295938 0.043434843 -0.9976516 19 23 39
-0.09 0.63 0.09863306 0.1259807 -0.012152159 -0.99195826 20 24 40
-0.09746017 0.64 0.1 -0.03951716 0.07617545 -0.99631107 19 23 40
-0.09 0.64 0.09921052 0.03277346 0.13621502 -0.99013704 20 23 37
-0.09 0.64438844 0.1 -0.029685918 0.12479585 -0.99173826 20 23 37
-0.09 0.65 0.100993775 0.02035436 0.055694047 -0.9982404 21 24 37
-0.09 0.66 0.10145163 -0.054649744 0.13474277 -0.98937243 21 24 37
-0.09 0.67 0.10207158 -0.037357498 0.080412604 -0.9960614 20 23 36
-0.09 0.68 0.103734195 -0.011445526 0.11999355 -0.9927087 21 24 37
-0.09 0.69 0.10468691 -0.08257327 0.09994767 -0.99156046 20 24 37
-0.09 0.7 0.10573785 0.026428929 0.11928702 -0.992508 18 22 36
-0.09 0.71 0.106879435 -0.0478945 0.05476631 -0.99734986 18 22 37
-0.09 0.72 0.106311634 -0.047686562 0.061731648 -0.99695295 19 23 37
-0.09 0.73 0.10844431 0.048888087 0.16845247 -0.98449665 20 24 37
-0.09 0.7396115 0.11 -0.091419816 0.0663138 -0.993602 17 21 35
-0.09 0.74 0.11006043 -0.08847642 0.06132554 -0.99418867 17 21 35
-0.08 -0.75 0.109427 0.084278576 -0.25305125 -0.963775 38 50 90
-0.08 -0.74 0.107343376 0.032183953 0.058607418 -0.9977622 29 43 89
-0.08 -0.73 0.10914293 0.0380251 -0.10420341 -0.99382883 27 43 93
-0.08 -0.72 0.10684708 0.13394302 -0.20748834 -0.9690242 28 45 97
-0.08 -0.71 0.10523034 0.043805823 -0.06889133 -0.99666196 36 54 109
-0.08 -0.7 0.10516759 0.11974498 -0.13664472 -0.9833562 32 50 105
-0.08 -0.69 0.10237748 0.13737912 -0.09477782 -0.9859737 31 51 109
-0.089278415 -0.68 0.06 0.92581326 -0.31406012 -0.21032374 35 59 127
-0.08685585 -0.68 0.07 0.9444152 -0.326612 0.037477467 31 53 117
-0.08 -0.68 0.102973014 0.08115404 -0.09462022 -0.9922001 34 53 110
-0.08894005 -0.67 0.06 0.97706014 -0.08634682 -0.19467323 35 59 128
-0.0869677 -0.67 0.07 0.9663444 -0.21525584 0.14086662 30 52 118
-0.08453979 -0.67 0.1 0.18700819 0.12230403 -0.9747152 34 53 111
-0.08 -0.67 0.10056397 0.18741609 -0.04062802 -0.98144007 34 53 111
-0.08 -0.66 0.055325545 0.42927822 -0.8458315 -0.3166848 36 61 133
-0.08 -0.6610027 0.06 0.43496057 -0.88093287 -0.18645811 36 61 133
-0.08 -0.66309816 0.07 0.7243843 -0.650756 0.227561 32 54 119
-0.08415298 -0.66 0.08 0.5311946 -0.70095104 0.47592008 29 48 103
-0.08 -0.66 0.074502915 0.5285701 -0.46008584 0.7133966 32 54 119
-0.08 -0.66567636 0.1 0.022952816 -0.16348086 -0.9862795 34 53 111
-0.08101021 -0.66 0.1 -0.4161342 -0.21240385 -0.8841476 34 53 111
-0.08 -0.66 0.09939487 -0.35119975 -0.29050547 -0.89009285 34 53 111
-0.08 -0.65 0.054839298 0.8085516 -0.009111192 -0.58835477 44 69 142
-0.08 -0.6557838 0.08 0.55126244 -0.76686597 0.32867363 29 48 103
-0.08 -0.65 0.08784017 0.16048065 -0.72335535 0.67156756 33 51 108
-0.08417633 -0.65 0.1 -0.60404843 0.17362927 -0.7778036 31 51 111
-0.08 -0.65 0.09647985 -0.1336208 -0.51842153 -0.844621 31 51 111
-0.08 -0.64 0.054930955 0.057934355 -0.03058692 -0.9978517 46 72 145
-0.085044175 -0.64 0.08 -0.98501086 -0.16971444 0.030832686 31 51 112
-0.08 -0.6484159 0.09 -0.16193525 -0.8811208 0.44430065 33 51 108
-0.08697136 -0.64 0.09 -0.97020406 0.224768 0.09046254 34 54 115
-0.08 -0.64626664 0.1 -0.99404436 -0.108624406 -0.008751349 31 51 111
-0.08 -0.64 0.09853508 -0.11413566 -0.31100625 0.9435296 32 52 112
-0.08 -0.64 0.1051487 -0.29411998 0.24619146 -0.92351675 30 52 115
-0.081105806 -0.63 0.06 -0.98124343 0.04195516 -0.18815173 42 66 136
-0.08 -0.63 0.054116715 -0.94812596 -0.018983677 -0.3173276 42 70 144
-0.08302246 -0.63 0.07 -0.97671443 0.06381461 -0.20483316 41 62 128
-0.08523354 -0.63 0.08 -0.9719695 0.12418476 -0.19963332 30 50 110
-0.08713226 -0.63 0.09 -0.97991717 0.16554634 -0.1111608 33 54 114
-0.08 -0.63 0.09848677 -0.44781408 0.050371777 0.8927067 32 52 109
-0.08 -0.63 0.104964755 -0.41297743 -0.07408487 -0.907723 32 52 109
-0.08123443 -0.62 0.06 -0.9318503 0.30927458 -0.18974791 41 65 133
-0.08 -0.62 0.05354526 -0.4318924 0.8517169 -0.29672772 42 69 143
-0.08338089 -0.62 0.07 -0.93531674 0.29866862 -0.18968304 41 62 126
-0.085282214 -0.62 0.08 -0.9100749 0.41424686 0.012777824 35 56 117
-0.08 -0.62 0.08656125 -0.5189182 0.32980636 0.7886391 31 52 109
-0.08 -0.6227462 0.09 -0.8299609 0.38366646 0.40492585 31 52 109
-0.08 -0.62 0.10376853 -0.77116674 -0.025836067 -0.63610876 33 54 112
-0.08 -0.6187478 0.06 -0.4465315 0.8745268 -0.18924186 41 65 133
-0.08 -0.6165768 0.07 -0.44394648 0.87840635 -0.17695709 41 62 126
-0.08 -0.6146144 0.08 -0.6050382 0.7893405 0.10426088 36 58 119
-0.08 -0.61 0.10370197 -0.90488225 0.0135162175 -0.42544737 32 53 110
-0.08 -0.6 0.10366972 -0.12517409 -0.07651628 -0.9891798 31 53 111
-0.08 -0.59 0.10258152 0.020940809 -0.15399148 -0.98785025 31 54 113
-0.08 -0.58 0.10118972 -0.048671156 -0.055935163 -0.9972474 31 55 119
-0.08 -0.57 0.10146254 -0.06548611 -0.09009272 -0.99377805 38 61 127
-0.0827301 -0.56 0.1 -0.09701057 -0.03761726 -0.9945722 40 63 132
-0.08 -0.56 0.09947996 -0.03725092 0.015586731 -0.99918437 40 63 132
-0.08 -0.5628001 0.1 -0.05321737 -0.1228754 -0.9909942 40 63 132
-0.08410347 -0.55 0.1 0.073669754 -0.124131575 -0.9895272 48 70 142
-0.08 -0.5550361 0.1 -0.060486495 -0.009671845 -0.99812216 40 63 132
-0.08 -0.55 0.10051534 -0.035513703 -0.11905998 -0.99225175 48 70 142
-0.08 -0.54 0.098419406 -0.031042483 -0.13797879 -0.9899486 50 73 145
-0.08 -0.54700553 0.1 0.014270372 -0.17167626 -0.9850501 48 70 142
-0.08 -0.53 0.097980835 -0.016623901 -0.0599544 -0.9980627 49 72 141
-0.08 -0.52 0.09713134 0.06606024 -0.12503797 -0.9899503 52 76 146
-0.08 -0.51 0.095163606 0.006177045 -0.12836209 -0.99170816 50 74 141
-0.08 -0.5 0.09424131 0.024284137 -0.13331978 -0.9907755 54 79 150
-0.08 -0.49 0.092440605 -0.004435513 -0.08399427 -0.9964564 55 81 152
-0.08 -0.48 0.092726424 0.013824893 -0.13577466 -0.99064326 55 80 152
-0.08 -0.47 0.09064556 0.03826701 -0.115829535 -0.9925317 53 78 150
-0.08 -0.46 0.089693874 0.016358268 -0.1561471 -0.98759836 49 73 144
-0.08 -0.46289912 0.09 0.018841287 -0.051954523 -0.9984717 49 73 144
-0.08 -0.45 0.08822829 -0.03329647 -0.120884605 -0.992108 48 72 143
-0.08 -0.44 0.08778186 -0.022597115 -0.063536786 -0.99772364 46 71 142
-0.08 -0.43 0.08644339 -0.019700833 -0.0580235 -0.9981208 52 74 139
-0.08 -0.42 0.086119 -0.05195811 -0.15305446 -0.9868509 51 73 137
-0.08419098 -0.41 0.08 0.61724293 -0.1540168 -0.77155036 40 64 130
-0.08 -0.41 0.0835108 0.2668221 -0.19301675 -0.9442195 40 64 130
-0.08345619 -0.4 0.08 0.6804771 -0.11279582 -0.7240359 42 67 132
-0.08 -0.4 0.08299309 0.21059826 -0.10811813 -0.97157544 42 67 132
-0.08227928 -0.39 0.08 0.7498177 -0.23232801 -0.6195136 38 62 128
-0.08 -0.39 0.08208006 0.21405154 -0.069206454 -0.9743677 38 62 128
-0.081268005 -0.38 0.08 0.6804832 -0.47501448 -0.5579461 39 65 133
-0.08 -0.38 0.081192665 0.37542638 -0.31807637 -0.87056446 39 65 133
-0.08650314 -0.37 0.07 0.013287497 -0.111844726 -0.99363685 46 68 130
-0.08 -0.37 0.07062463 0.05516981 -0.5551277 -0.82993346 46 67 127
-0.08 -0.3788264 0.08 0.33414087 -0.8487368 -0.4098728 39 65 133
-0.08 -0.36 0.06988547 0.011096309 0.5969445 -0.80220574 45 67 129
-0.08 -0.3644723 0.07 0.019244296 0.37877324 -0.9252894 45 67 129
-0.08 -0.35984576 0.07 0.017765945 0.7735611 -0.6334727 45 67 129
-0.08 -0.35 0.07734012 -0.17482816 0.24838078 -0.95275503 45 67 130
-0.08 -0.34 0.06997397 -0.0038617286 0.27861375 -0.96039546 34 59 129
-0.08 -0.34003395 0.07 -0.017808022 -0.0440354 -0.99887127 34 59 129
-0.08 -0.3399653 0.07 0.0058590733 0.76309156 -0.64626384 34 59 129
-0.08 -0.33 0.07741461 -0.015604467 0.47343555 -0.8806902 40 63 131
-0.08 -0.3263901 0.08 -0.015958898 0.5626082 -0.8265696 40 63 131
-0.08603256 -0.32 0.08 0.61920905 -0.017022405 -0.78504163 39 64 133
-0.08 -0.32 0.08448139 0.1368823 0.18394464 -0.9733589 43 61 120
-0.08588242 -0.31 0.08 0.5692203 0.340127 -0.7485332 38 62 132
-0.08 -0.31 0.084536575 0.21134216 -0.0008076247 -0.9774118 47 65 124
-0.08 -0.3 0.08440035 0.22845617 0.08673324 -0.969683 46 63 118
-0.08 -0.29234055 0.09 0.08589027 0.22501867 -0.97056144 39 57 114
-0.08 -0.29 0.09163026 0.0013953227 0.09841537 -0.9951444 39 57 114
-0.08 -0.28 0.09594147 0.5268101 0.4413049 -0.7264441 38 58 117
-0.08 -0.27 0.09605095 0.07658591 -0.23359838 -0.9693123 36 54 109
-0.08 -0.26 0.093255155 0.029312545 -0.13124123 -0.990917 44 58 107
-0.08 -0.25 0.09400453 -0.023974761 0.06695228 -0.9974681 38 54 104
-0.08 -0.24 0.092423104 -0.10059756 -0.14132121 -0.9848393 38 54 103
-0.08 -0.23 0.0908544 -0.07777468 -0.16942637 -0.98246926 41 57 108
-0.0849762 -0.22 0.09 -0.164076 -0.120950334 -0.9790046 42 56 106
-0.08 -0.22 0.08915175 -0.12799273 -0.08633924 -0.9880098 42 56 106
-0.08 -0.2253316 0.09 -0.06966796 -0.17072538 -0.9828526 41 57 108
-0.08 -0.21 0.08860321 -0.12454066 -0.23819776 -0.96319854 41 55 105
-0.08 -0.2 0.08525109 -0.08529317 -0.18158118 -0.97967005 44 57 103
-0.08 -0.19 0.08479688 -0.13934751 -0.07446306 -0.9874399 42 55 99
-0.08 -0.18 0.08362279 -0.1968045 -0.05260108 -0.9790307 44 56 100
-0.08 -0.17 0.08354851 -0.15364143 -0.049568187 -0.9868826 41 53 96
-0.08 -0.16 0.082725674 -0.17104787 0.29154223 -0.94114065 43 55 98
-0.08 -0.15671635 0.09 -0.17618516 0.93205446 -0.3165964 42 55 98
-0.087145 -0.15 0.09 0.15343687 0.9833522 -0.09734304 41 53 96
-0.08 -0.15279584 0.1 -0.13771982 0.9268792 -0.3491822 48 54 84
-0.08163986 -0.15 0.11 -0.38251254 0.82436484 -0.4172611 51 56 87
-0.08 -0.15 0.107488506 -0.20260039 0.8640142 -0.46090403 51 56 87
-0.08 -0.14794788 0.11 -0.55097663 0.6588788 -0.5121558 51 56 87
-0.083391264 -0.14 0.12 -0.09142138 0.4144204 -0.9054821 51 56 86
-0.08 -0.14 0.119091175 -0.41024438 0.4884952 -0.7701117 51 56 86
-0.08 -0.132682 0.12 0.059664264 0.28653765 -0.95620936 51 55 86
-0.08 -0.13 0.120490015 0.3451756 0.60453284 -0.7179094 51 55 86
-0.08039055 -0.13 0.2 0.955396 -0.0134969 0.29501918 55 41 31
-0.08 -0.1307116 0.2 0.6216918 0.20862193 0.75496763 55 41 31
-0.08 -0.13 0.19931488 0.49605784 -0.035696883 0.8675554 55 41 31
-0.08 -0.13 0.20231903 0.85273504 0.16508226 -0.49557117 55 41 31
-0.08 -0.121758655 0.13 0.05005247 0.5886856 -0.80681103 53 53 74
-0.08200989 -0.12 0.13 0.23307483 0.2552865 -0.9383522 53 53 74
-0.08 -0.12 0.13072275 -0.083190896 0.113613434 -0.990036 53 53 74
-0.08 -0.12661628 0.2 0.90261245 0.097517334 0.41926262 55 41 31
-0.08 -0.11 0.13089933 -0.34894907 0.69074863 -0.6333252 50 50 72
-0.081839524 -0.11 0.19 0.90097773 0.25685972 0.3496601 59 42 30
-0.08 -0.11668358 0.19 0.96029663 0.20059365 0.1938879 60 44 32
-0.08 -0.11 0.18739611 0.8122348 0.15365657 0.5627293 59 42 30
-0.08179245 -0.11 0.2 0.4525554 0.88098097 0.13808028 67 52 39
-0.08 -0.11179245 0.2 0.973931 0.22650145 -0.012470952 67 52 39
-0.08539932 -0.11 0.21 0.698706 0.59003675 -0.40455735 59 42 31
-0.08 -0.1195924 0.21 0.98118323 0.18504262 0.05512484 52 40 31
-0.08 -0.11 0.2195932 0.8068512 0.5637409 -0.17659914 71 56 43
-0.08605995 -0.11 0.23 0.97772264 0.20981933 -0.0058523035 63 52 45
-0.08 -0.11568733 0.23 0.6334906 0.76891327 -0.08638271 53 43 40
-0.08 -0.11 0.2200673 0.43708917 0.7340985 0.51966566 71 56 43
-0.082860336 -0.11 0.24 0.77340084 0.61418295 -0.15694089 61 45 30
-0.08 -0.11242607 0.24 0.50833696 0.8311051 -0.22551677 61 45 30
-0.081990436 -0.11 0.25 0.66917026 0.73862284 -0.08153187 58 40 23
-0.08 -0.111725 0.25 0.58433336 0.8075581 -0.08002769 58 40 23
-0.08060455 -0.11 0.26 0.6303672 0.77384824 -0.061612807 65 47 28
-0.08 -0.11037495 0.26 0.61184657 0.78730404 -0.076132305 65 47 28
-0.08 -0.11 0.26813093 0.6200003 0.78364664 -0.03869802 63 44 25
-0.08 -0.1 0.13261637 0.7724738 -0.055706453 -0.6325986 54 53 71
-0.084927976 -0.1 0.18 0.4670889 0.8577104 0.21485074 52 42 39
-0.08 -0.10485374 0.18 0.68838435 0.60724515 0.3967119 52 42 39
-0.08 -0.1 0.17331375 0.5623754 0.71067077 0.42270663 52 44 45
-0.08910965 -0.1 0.21 0.958727 0.2803443 0.047429733 67 48 34
-0.08 -0.10993851 0.22 0.50408053 0.8069669 0.3077455 71 56 43
-0.087144546 -0.1 0.23 0.92805016 0.35526884 -0.111834414 64 53 48
-0.086813815 -0.1 0.24 0.9165467 0.39849433 -0.03382984 65 55 51
-0.08644631 -0.1 0.25 0.95765114 0.28505918 -0.040566266 65 52 42
-0.08597595 -0.1 0.26 0.9138136 0.40594086 -0.012521654 72 60 52
-0.08 -0.10989693 0.27 0.64143217 0.72736216 -0.2439448 63 44 25
-0.08615486 -0.1 0.27 0.8933109 0.44885704 -0.022869965 71 56 47
-0.08559357 -0.1 0.28 0.8751878 0.43862417 -0.20409575 73 57 47
-0.08 -0.105525516 0.28 0.56009483 0.7832682 -0.26978648 67 51 39
-0.08 -0.1 0.2893185 0.37198573 0.7418598 -0.5579164 93 63 28
-0.08 -0.09 0.1318113 0.58221996 0.65404946 -0.48294845 42 42 60
-0.08 -0.098155595 0.17 0.52442694 0.72772795 0.4420276 52 44 45
-0.08 -0.09 0.16005272 0.42414525 0.7328066 0.53206694 53 45 48
-0.08 -0.09927735 0.29 0.5727639 0.6575048 -0.4895191 93 63 28
-0.08821876 -0.09 0.3 0.681684 0.49597883 -0.53787726 90 63 31
-0.08 -0.09785026 0.3 0.59967357 0.7934094 -0.10437011 91 62 31
-0.08359886 -0.09 0.31 0.8739147 0.30624872 -0.37747163 89 58 19
-0.08 -0.09661385 0.31 0.5771199 0.6990914 -0.42214194 84 58 33
-0.08 -0.09 0.3160066 0.4935365 0.5325895 -0.6875828 85 59 32
-0.08 -0.08719482 0.14 0.35134935 0.89795 -0.2650273 51 43 51
-0.088179395 -0.08 0.14 0.813418 0.5285926 -0.24277785 43 40 55
-0.08525368 -0.08 0.15 0.6425123 0.68392134 0.34558576 46 41 51
-0.08 -0.0845105 0.15 0.40392616 0.89484996 0.18996628 44 35 37
-0.08 -0.089965746 0.16 0.3399367 0.85998905 0.3806072 53 45 48
-0.088253096 -0.08 0.31 0.50439066 0.76026684 -0.40937072 68 48 29
-0.08 -0.08578552 0.32 0.6591653 0.67304355 -0.3354302 85 59 32
-0.08625153 -0.08 0.32 0.7842447 0.50528204 -0.3600698 81 58 36
-0.08238632 -0.08 0.33 0.8659905 0.31563902 -0.38785616 94 61 23
-0.08 -0.084361345 0.33 0.5129693 0.7342349 -0.4447039 94 61 23
-0.08 -0.08 0.33409473 0.5626544 0.4912487 -0.6649021 94 61 23
-0.08634812 -0.07 0.33 0.5534989 0.6898878 -0.46657667 78 49 30
-0.08 -0.0735881 0.34 0.6390132 0.5264214 -0.560841 84 56 26
-0.08372505 -0.07 0.34 0.75248957 0.4918135 -0.4380399 84 56 26
-0.08 -0.07 0.34345067 0.54934907 0.5059342 -0.66501594 84 56 26
-0.08492607 -0.06 0.35 0.6134163 0.42288482 -0.6669999 77 45 15
-0.08 -0.06435463 0.35 0.55119014 0.6203985 -0.5579382 77 45 15
-0.08 -0.06 0.35445267 0.5088808 0.49128586 -0.70687944 77 45 15
-0.08212326 -0.05 0.36 0.6767235 0.18022703 -0.71383715 105 65 23
-0.08 -0.054196473 0.36 0.5444686 0.3700637 -0.7527329 105 65 23
-0.08 -0.05 0.36202133 0.50198406 0.1414589 -0.85322994 105 65 23
-0.08193031 -0.04 0.37 0.88270074 0.4559159 -0.113930345 77 52 25
-0.08 -0.04194046 0.37 0.4167391 0.8608333 -0.29205236 77 52 25
-0.08129707 -0.04 0.38 0.8744955 0.48387095 -0.03356414 70 47 19
-0.08 -0.041266557 0.38 0.47742674 0.87749505 -0.045454796 70 47 19
-0.08103867 -0.04 0.39 0.83537424 0.49733007 -0.2341211 44 32 21
-0.08 -0.041027907 0.39 0.4571594 0.86236364 -0.21756434 44 32 21
-0.08 -0.04 0.39188966 0.62645626 0.6477651 -0.43353537 44 32 21
-0.08228035 -0.03 0.4 0.18044204 0.025044689 -0.9832667 55 45 37
-0.08 -0.031983566 0.4 0.27479765 -0.004697662 -0.96149063 55 45 37
-0.08 -0.03 0.4003942 0.048932012 -0.09428879 -0.9943416 55 45 37
-0.08 -0.02 0.4004628 0.13499402 0.11574366 -0.984063 67 58 52
-0.08191521 -0.01 0.4 0.47862756 -0.022575991 -0.87772775 70 60 54
-0.08 -0.01 0.4005816 0.32293734 0.19014135 -0.92712337 70 60 54
-0.08986206 0.0 0.33 0.9170317 -0.36806905 -0.15355128 95 63 27
-0.08816475 0.0 0.34 0.90792894 -0.3922699 -0.14761224 90 61 26
-0.08655365 0.0 0.35 0.9209147 -0.38660878 0.04949461 67 47 25
-0.083687514 0.0 0.38 0.95147276 -0.17165224 -0.25541154 92 63 28
-0.08257439 0.0 0.39 0.9689387 -0.17527856 -0.17445691 42 31 20
-0.08080788 0.0 0.4 0.82644033 -0.45136118 -0.33655524 57 47 41
-0.08 0.0 0.40081027 0.45240834 -0.1521786 -0.87873113 57 47 41
-0.08313919 0.01 0.33 0.11554718 -0.8862191 -0.44862527 89 70 50
-0.08 0.01 0.3308633 0.56056285 -0.78761286 -0.25580314 89 70 50
-0.08 0.00818901 0.34 0.48501232 -0.8639451 -0.13550578 64 49 36
-0.08 0.00680191 0.35 0.51753163 -0.77952343 0.35285166 63 44 27
-0.08 0.01 0.35378182 0.37055245 -0.1643558 0.9141543 63 44 27
-0.08311081 0.01 0.37 0.9552558 -0.12271948 -0.26912135 71 55 40
-0.08250031 0.01 0.38 0.8670249 -0.49361345 -0.067922994 91 62 27
-0.08117691 0.01 0.39 0.5774175 -0.5925451 -0.5616755 39 31 25
-0.08 0.01 0.39070642 0.25880194 -0.55227315 -0.79247457 39 31 25
-0.08 0.00085647585 0.4 0.34665474 -0.76696527 -0.53999513 57 47 41
-0.08 0.02 0.3282187 0.89345837 0.013336333 -0.44894803 83 65 48
-0.08 0.013320313 0.33 0.96727794 -0.033091497 -0.25155178 89 70 50
-0.08454697 0.02 0.36 0.9671541 0.24161895 -0.07895117 75 52 32
-0.08 0.02 0.35293174 0.6055829 0.31893557 0.7290744 72 49 26
-0.08131088 0.02 0.37 0.4705731 -0.6433863 -0.6038336 70 55 42
-0.08 0.02 0.3710139 0.3228361 -0.668147 -0.67034054 70 55 42
-0.08 0.012580566 0.38 0.49031314 -0.86068153 -0.13718723 91 62 27
-0.08 0.011313706 0.39 0.37480327 -0.6004493 -0.70638734 39 31 25
-0.082084656 0.03 0.24 -0.7989001 0.5770717 -0.16954876 74 54 38
-0.08 0.03 0.23693208 -0.17867444 0.40412188 -0.8970847 74 54 38
-0.08 0.027089156 0.24 0.11159295 -0.9677798 -0.2257193 74 54 38
-0.08 0.03 0.24339151 0.03117614 0.31570655 0.9483446 74 54 38
-0.0841008 0.03 0.26 0.9342125 -0.2836678 -0.21628591 94 66 33
-0.083487704 0.03 0.27 0.90133727 -0.41933337 0.10840039 82 54 29
-0.083655246 0.03 0.29 0.83001554 -0.5557059 -0.04759397 81 60 38
-0.08 0.025262833 0.33 0.04734372 0.23614608 -0.97056353 80 57 37
-0.08154732 0.03 0.34 -0.6688478 0.71012545 0.21991919 77 56 37
-0.08 0.03 0.33215633 -0.29672337 0.91087407 -0.28681648 80 57 37
-0.08 0.03 0.341362 -0.050675303 0.6694696 0.74110895 77 56 37
-0.08 0.022594681 0.35 0.4866526 0.8076736 0.3329154 72 49 26
-0.08821495 0.03 0.37 -0.51644045 0.48751497 -0.7040017 63 46 32
-0.08 0.03 0.36355752 -0.083206855 -0.2103399 -0.974081 65 46 28
-0.08 0.02109932 0.37 0.4309064 -0.69767374 -0.5723382 70 55 42
-0.08 0.031902313 0.24 -0.15654755 0.97965574 -0.12556861 74 54 38
-0.08167274 0.04 0.26 0.88050854 -0.1024836 -0.4628194 86 62 39
-0.08045441 0.04 0.27 0.6155799 -0.58538353 -0.52762437 84 59 33
-0.08 0.03432022 0.28 0.41741914 -0.89639556 -0.14911821 80 60 39
-0.08 0.04 0.27048483 0.56565326 -0.51906186 -0.6407895 84 59 33
-0.08 0.03377327 0.29 0.52108556 -0.85335666 -0.015883673 81 60 38
-0.08 0.03380081 0.3 0.1848909 -0.9603664 0.20859459 70 53 35
-0.08 0.04 0.3070926 0.35312393 -0.3004116 0.8860341 86 59 28
-0.089312896 0.04 0.32 0.30185682 0.7728119 0.5582511 81 54 23
-0.08 0.031158142 0.34 -0.34360576 0.90779024 0.24052438 77 56 37
-0.08 0.036196593 0.35 -0.38809037 -0.9122175 0.13132052 69 48 34
-0.08408791 0.04 0.35 -0.6982231 0.68693346 -0.20151165 69 48 34
-0.08 0.04 0.34662303 -0.116791904 0.34259292 -0.9321962 69 48 34
-0.08 0.04 0.35469475 0.060848985 0.02072489 0.9979318 69 48 34
-0.0867514 0.04 0.37 -0.43240562 0.22083199 -0.8742189 62 43 27
-0.08 0.04 0.36401194 -0.16652706 0.3149525 -0.9343841 50 31 15
-0.08190765 0.05 0.26 0.5157183 0.7269757 -0.45336634 70 52 37
-0.08053467 0.05 0.27 0.83646166 -0.04078876 -0.5465054 87 62 36
-0.08 0.05 0.27047196 0.10652738 -0.1057239 -0.98867303 87 62 36
-0.087162554 0.05 0.29 -0.78312844 -0.42534882 0.45363885 82 54 23
-0.08743042 0.05 0.3 -0.9018668 0.4253354 0.075670585 82 58 31
-0.08 0.05 0.3082125 -0.246011 0.1472999 0.95800906 70 48 28
-0.08 0.04394928 0.35 -0.10553069 0.9738684 -0.20110577 69 48 34
-0.08 0.04631729 0.37 -0.097485214 0.48714733 -0.8678618 58 39 23
-0.08 0.05 0.37304834 -0.07336076 0.2642903 -0.961649 58 39 23
-0.08036842 0.06 0.27 0.54048026 -0.0026765899 -0.84135246 94 70 45
-0.08 0.06 0.27030987 0.10663667 -0.3928588 -0.9133951 94 70 45
-0.08 0.05826561 0.3 -0.38016003 0.30039388 0.874781 92 66 36
-0.08 0.06 0.29826564 -0.27030006 0.19925964 0.9419307 92 66 36
-0.08 0.058535613 0.38 0.47495082 0.24947627 -0.84390956 60 46 36
-0.080789566 0.06 0.38 0.86250067 0.09310441 -0.49741745 60 46 36
-0.08 0.06 0.38126528 0.6456493 -0.03208873 -0.76295954 60 46 36
-0.08 0.07 0.2662783 -0.047339045 -0.1318552 -0.990138 77 56 38
-0.08 0.06033714 0.27 0.24171296 -0.55785304 -0.79396147 94 70 45
-0.08 0.07 0.27813253 -0.14016056 -0.24830554 0.95848805 86 57 25
-0.082369916 0.07 0.28 0.9038292 0.16565485 0.39452654 86 57 25
-0.08 0.06826126 0.28 -0.41828513 0.7606696 0.4964064 86 57 25
-0.0816417 0.07 0.29 0.9113959 0.3574633 0.20390548 78 49 23
-0.08 0.0685875 0.29 0.2807649 0.94834733 0.14767654 78 49 23
-0.08 0.07 0.38070586 0.14390391 -0.2856797 -0.9474591 63 43 28
-0.08832642 0.08 0.27 -0.5971197 0.10618976 -0.79509234 84 57 23
